CHECKED_BY_BANNA
24.530000 -24.300000 9.479000
24.330000 -24.250000 9.547000
24.110000 -24.180000 9.610000
23.870000 -24.100000 9.667000
23.640000 -24.030000 9.717000
23.430000 -23.980000 9.752000
23.220000 -23.970000 9.762000
23.010000 -23.980000 9.739000
22.800000 -24.000000 9.677000
22.590000 -24.030000 9.581000
22.410000 -24.040000 9.454000
22.240000 -24.040000 9.296000
22.080000 -24.040000 9.097000
21.930000 -24.020000 8.866000
21.800000 -23.980000 8.632000
21.700000 -23.930000 8.415000
21.630000 -23.850000 8.217000
21.560000 -23.760000 8.043000
21.490000 -23.680000 7.906000
21.390000 -23.630000 7.812000
21.260000 -23.600000 7.752000
21.090000 -23.570000 7.715000
20.880000 -23.510000 7.694000
20.640000 -23.410000 7.688000
20.400000 -23.280000 7.701000
20.160000 -23.130000 7.735000
19.940000 -22.960000 7.789000
19.720000 -22.790000 7.862000
19.530000 -22.620000 7.950000
19.350000 -22.440000 8.036000
19.210000 -22.250000 8.109000
19.090000 -22.060000 8.169000
18.990000 -21.840000 8.226000
18.890000 -21.590000 8.288000
18.800000 -21.320000 8.359000
18.720000 -21.030000 8.444000
18.660000 -20.740000 8.544000
18.620000 -20.460000 8.650000
18.600000 -20.180000 8.752000
18.580000 -19.900000 8.849000
18.570000 -19.600000 8.943000
18.580000 -19.260000 9.031000
18.600000 -18.920000 9.111000
18.630000 -18.590000 9.186000
18.690000 -18.280000 9.263000
18.770000 -17.960000 9.350000
18.870000 -17.650000 9.449000
19.000000 -17.360000 9.555000
19.150000 -17.120000 9.661000
19.290000 -16.900000 9.764000
19.440000 -16.710000 9.866000
19.610000 -16.530000 9.977000
19.800000 -16.340000 10.100000
20.010000 -16.130000 10.240000
20.180000 -15.930000 10.370000
20.270000 -15.710000 10.490000
20.220000 -15.490000 10.570000
20.060000 -15.260000 10.610000
19.810000 -15.020000 10.640000
19.530000 -14.750000 10.670000
19.250000 -14.460000 10.700000
19.020000 -14.180000 10.730000
18.840000 -13.900000 10.780000
18.700000 -13.610000 10.830000
18.570000 -13.330000 10.880000
18.470000 -13.060000 10.930000
18.390000 -12.780000 10.970000
18.320000 -12.470000 11.020000
18.260000 -12.140000 11.080000
18.240000 -11.810000 11.140000
18.240000 -11.480000 11.200000
18.270000 -11.160000 11.260000
18.300000 -10.830000 11.310000
18.340000 -10.490000 11.360000
18.390000 -10.140000 11.420000
18.410000 -9.804000 11.460000
18.350000 -9.476000 11.470000
18.190000 -9.183000 11.430000
17.960000 -8.935000 11.340000
17.710000 -8.719000 11.230000
17.480000 -8.514000 11.130000
17.260000 -8.302000 11.040000
17.040000 -8.075000 10.960000
16.820000 -7.823000 10.880000
16.590000 -7.538000 10.820000
16.360000 -7.215000 10.770000
16.140000 -6.865000 10.730000
15.940000 -6.502000 10.710000
15.770000 -6.129000 10.700000
15.600000 -5.748000 10.700000
15.450000 -5.353000 10.700000
15.320000 -4.941000 10.700000
15.220000 -4.515000 10.700000
15.140000 -4.067000 10.700000
15.080000 -3.588000 10.700000
15.030000 -3.111000 10.710000
15.010000 -2.678000 10.740000
15.020000 -2.293000 10.790000
15.050000 -1.944000 10.860000
15.090000 -1.619000 10.940000
15.160000 -1.306000 11.040000
15.250000 -0.993700 11.160000
15.340000 -0.697200 11.290000
15.440000 -0.431400 11.410000
15.560000 -0.178300 11.530000
15.710000 0.085700 11.670000
15.880000 0.361300 11.800000
16.010000 0.633500 11.910000
16.050000 0.880200 11.950000
15.970000 1.084000 11.930000
15.820000 1.250000 11.860000
15.660000 1.406000 11.780000
15.510000 1.575000 11.680000
15.360000 1.771000 11.570000
15.230000 2.000000 11.450000
15.090000 2.270000 11.340000
14.960000 2.589000 11.230000
14.840000 2.949000 11.120000
14.750000 3.323000 11.040000
14.680000 3.701000 10.990000
14.640000 4.073000 10.970000
14.620000 4.429000 10.980000
14.600000 4.761000 11.000000
14.600000 5.064000 11.040000
14.620000 5.352000 11.090000
14.650000 5.646000 11.150000
14.690000 5.937000 11.220000
14.730000 6.197000 11.280000
14.770000 6.417000 11.340000
14.820000 6.626000 11.410000
14.880000 6.857000 11.490000
14.890000 7.096000 11.550000
14.820000 7.299000 11.530000
14.660000 7.452000 11.450000
14.460000 7.568000 11.320000
14.260000 7.666000 11.180000
14.070000 7.756000 11.040000
13.900000 7.853000 10.890000
13.720000 7.982000 10.720000
13.510000 8.163000 10.550000
13.300000 8.406000 10.370000
13.080000 8.717000 10.210000
12.880000 9.086000 10.100000
12.680000 9.500000 10.030000
12.510000 9.952000 10.010000
12.350000 10.410000 10.030000
12.230000 10.800000 10.070000
12.150000 11.110000 10.120000
12.100000 11.360000 10.180000
12.080000 11.600000 10.250000
12.070000 11.860000 10.340000
12.090000 12.130000 10.460000
12.120000 12.390000 10.580000
12.180000 12.620000 10.700000
12.250000 12.850000 10.820000
12.350000 13.070000 10.940000
12.440000 13.280000 11.040000
12.490000 13.440000 11.090000
12.470000 13.560000 11.060000
12.340000 13.660000 10.960000
12.140000 13.760000 10.790000
11.910000 13.870000 10.570000
11.680000 13.990000 10.360000
11.460000 14.120000 10.170000
11.270000 14.280000 10.010000
11.080000 14.480000 9.873000
10.890000 14.710000 9.766000
10.700000 14.980000 9.686000
10.520000 15.270000 9.635000
10.350000 15.610000 9.617000
10.200000 16.000000 9.637000
10.080000 16.420000 9.696000
10.010000 16.850000 9.788000
9.987000 17.280000 9.903000
9.991000 17.670000 10.030000
10.020000 18.010000 10.150000
10.060000 18.310000 10.260000
10.110000 18.580000 10.370000
10.150000 18.820000 10.440000
10.130000 19.000000 10.460000
10.040000 19.120000 10.410000
9.865000 19.180000 10.290000
9.632000 19.230000 10.140000
9.381000 19.290000 9.990000
9.127000 19.400000 9.860000
8.874000 19.540000 9.759000
8.622000 19.710000 9.688000
8.375000 19.900000 9.644000
8.130000 20.110000 9.626000
7.882000 20.360000 9.636000
7.636000 20.630000 9.673000
7.401000 20.940000 9.742000
7.186000 21.300000 9.851000
7.005000 21.700000 9.999000
6.876000 22.090000 10.160000
6.788000 22.390000 10.290000
6.698000 22.520000 10.330000
6.565000 22.490000 10.260000
6.387000 22.350000 10.120000
6.195000 22.180000 9.970000
6.004000 22.030000 9.831000
5.802000 21.900000 9.706000
5.569000 21.770000 9.587000
5.303000 21.660000 9.475000
5.019000 21.560000 9.381000
4.728000 21.490000 9.315000
4.437000 21.450000 9.275000
4.155000 21.440000 9.262000
3.884000 21.450000 9.273000
3.610000 21.490000 9.309000
3.321000 21.540000 9.369000
3.017000 21.610000 9.450000
2.700000 21.690000 9.555000
2.369000 21.800000 9.688000
2.019000 21.940000 9.849000
1.658000 22.100000 10.030000
1.300000 22.290000 10.210000
0.969900 22.480000 10.370000
0.687100 22.670000 10.500000
0.456700 22.870000 10.590000
0.270800 23.080000 10.650000
0.107700 23.320000 10.690000
-0.054680 23.590000 10.700000
-0.221400 23.870000 10.710000
-0.388300 24.130000 10.720000
-0.557200 24.380000 10.730000
-0.735800 24.630000 10.740000
-0.929900 24.880000 10.740000
-1.140000 25.070000 10.710000
-1.367000 25.140000 10.640000
-1.615000 25.070000 10.530000
-1.887000 24.870000 10.390000
-2.185000 24.610000 10.240000
-2.505000 24.320000 10.080000
-2.828000 24.040000 9.933000
-3.141000 23.820000 9.825000
-3.449000 23.650000 9.751000
-3.754000 23.530000 9.710000
-4.057000 23.440000 9.700000
-4.369000 23.370000 9.725000
-4.709000 23.340000 9.787000
-5.085000 23.330000 9.886000
-5.472000 23.350000 10.010000
-5.830000 23.370000 10.150000
-6.122000 23.360000 10.260000
-6.331000 23.270000 10.320000
-6.476000 23.080000 10.330000
-6.590000 22.810000 10.300000
-6.694000 22.520000 10.250000
-6.795000 22.260000 10.190000
-6.906000 22.030000 10.140000
-7.040000 21.800000 10.090000
-7.203000 21.570000 10.050000
-7.394000 21.340000 10.020000
-7.607000 21.110000 10.000000
-7.851000 20.890000 10.020000
-8.145000 20.670000 10.060000
-8.498000 20.460000 10.150000
-8.892000 20.280000 10.280000
-9.275000 20.140000 10.430000
-9.592000 20.010000 10.570000
-9.816000 19.860000 10.660000
-9.943000 19.620000 10.680000
-9.992000 19.290000 10.620000
-10.000000 18.870000 10.480000
-10.020000 18.410000 10.300000
-10.070000 17.980000 10.130000
-10.150000 17.600000 9.976000
-10.250000 17.280000 9.858000
-10.350000 17.020000 9.770000
-10.470000 16.780000 9.709000
-10.590000 16.560000 9.673000
-10.710000 16.340000 9.658000
-10.840000 16.100000 9.661000
-10.980000 15.870000 9.683000
-11.120000 15.650000 9.730000
-11.290000 15.420000 9.808000
-11.490000 15.190000 9.919000
-11.710000 14.960000 10.060000
-11.950000 14.750000 10.220000
-12.160000 14.570000 10.380000
-12.320000 14.380000 10.490000
-12.400000 14.150000 10.520000
-12.390000 13.880000 10.450000
-12.310000 13.570000 10.310000
-12.210000 13.270000 10.140000
-12.130000 13.000000 9.980000
-12.080000 12.740000 9.842000
-12.060000 12.470000 9.711000
-12.080000 12.160000 9.584000
-12.130000 11.810000 9.469000
-12.220000 11.450000 9.376000
-12.350000 11.060000 9.309000
-12.530000 10.650000 9.273000
-12.750000 10.230000 9.268000
-12.990000 9.839000 9.294000
-13.240000 9.501000 9.353000
-13.490000 9.214000 9.449000
-13.740000 8.970000 9.581000
-14.010000 8.758000 9.742000
-14.270000 8.561000 9.920000
-14.520000 8.369000 10.110000
-14.760000 8.174000 10.300000
-14.990000 7.983000 10.490000
-15.160000 7.811000 10.640000
-15.250000 7.648000 10.700000
-15.260000 7.450000 10.680000
-15.220000 7.190000 10.600000
-15.160000 6.905000 10.490000
-15.120000 6.646000 10.390000
-15.100000 6.396000 10.300000
-15.090000 6.100000 10.210000
-15.100000 5.755000 10.110000
-15.120000 5.394000 10.010000
-15.180000 5.044000 9.934000
-15.260000 4.710000 9.888000
-15.360000 4.381000 9.872000
-15.470000 4.055000 9.876000
-15.580000 3.739000 9.893000
-15.690000 3.443000 9.925000
-15.800000 3.171000 9.981000
-15.910000 2.918000 10.070000
-16.050000 2.671000 10.190000
-16.190000 2.436000 10.310000
-16.320000 2.231000 10.430000
-16.460000 2.053000 10.540000
-16.620000 1.869000 10.650000
-16.800000 1.655000 10.780000
-16.950000 1.424000 10.870000
-16.990000 1.191000 10.900000
-16.920000 0.956200 10.870000
-16.790000 0.713600 10.790000
-16.650000 0.466400 10.710000
-16.530000 0.211400 10.610000
-16.420000 -0.061450 10.530000
-16.340000 -0.358700 10.440000
-16.290000 -0.686800 10.370000
-16.270000 -1.049000 10.320000
-16.290000 -1.448000 10.280000
-16.340000 -1.879000 10.270000
-16.430000 -2.324000 10.280000
-16.530000 -2.752000 10.300000
-16.650000 -3.137000 10.330000
-16.770000 -3.486000 10.370000
-16.910000 -3.821000 10.410000
-17.050000 -4.155000 10.460000
-17.200000 -4.468000 10.510000
-17.330000 -4.737000 10.550000
-17.450000 -4.977000 10.580000
-17.600000 -5.241000 10.620000
-17.790000 -5.547000 10.670000
-18.000000 -5.861000 10.720000
-18.220000 -6.160000 10.770000
-18.460000 -6.443000 10.810000
-18.710000 -6.705000 10.840000
-18.960000 -6.943000 10.880000
-19.220000 -7.173000 10.920000
-19.490000 -7.404000 10.960000
-19.740000 -7.636000 11.000000
-19.950000 -7.871000 11.020000
-20.070000 -8.117000 11.000000
-20.120000 -8.377000 10.950000
-20.100000 -8.649000 10.870000
-20.070000 -8.928000 10.790000
-20.020000 -9.214000 10.700000
-19.970000 -9.510000 10.600000
-19.930000 -9.834000 10.490000
-19.910000 -10.200000 10.370000
-19.910000 -10.590000 10.250000
-19.930000 -10.950000 10.160000
-19.980000 -11.280000 10.080000
-20.060000 -11.590000 10.020000
-20.170000 -11.920000 9.969000
-20.290000 -12.250000 9.921000
-20.410000 -12.560000 9.881000
-20.540000 -12.830000 9.854000
-20.670000 -13.100000 9.834000
-20.830000 -13.370000 9.818000
-21.010000 -13.640000 9.802000
-21.190000 -13.910000 9.789000
-21.400000 -14.170000 9.783000
-21.630000 -14.430000 9.782000
-21.870000 -14.680000 9.783000
-22.110000 -14.920000 9.782000
-22.330000 -15.130000 9.779000
-22.560000 -15.330000 9.772000
-22.770000 -15.530000 9.759000
-22.920000 -15.740000 9.734000
-22.950000 -15.950000 9.692000
-22.860000 -16.160000 9.634000
-22.720000 -16.370000 9.565000
-22.560000 -16.580000 9.490000
-22.420000 -16.800000 9.410000
-22.290000 -17.040000 9.325000
-22.170000 -17.310000 9.237000
-22.070000 -17.580000 9.150000
-22.000000 -17.840000 9.067000
-21.950000 -18.100000 8.984000
-21.930000 -18.350000 8.899000
-21.940000 -18.590000 8.824000
-21.970000 -18.820000 8.766000
-22.010000 -19.060000 8.722000
-22.080000 -19.340000 8.680000
-22.160000 -19.650000 8.635000
-22.260000 -19.990000 8.588000
-22.360000 -20.320000 8.541000
-22.490000 -20.660000 8.494000
-22.630000 -20.990000 8.445000
-22.770000 -21.280000 8.399000
-22.910000 -21.520000 8.360000
-23.040000 -21.730000 8.328000
-23.180000 -21.940000 8.299000
-23.330000 -22.140000 8.277000
-23.480000 -22.310000 8.265000
-23.640000 -22.470000 8.257000
-23.820000 -22.590000 8.247000
-24.020000 -22.690000 8.231000
-24.250000 -22.770000 8.219000
-24.500000 -22.840000 8.220000
-24.770000 -22.910000 8.235000
-25.040000 -22.970000 8.265000
-25.270000 -23.010000 8.303000
-25.460000 -23.040000 8.344000
-25.620000 -23.040000 8.387000
-25.780000 -23.020000 8.440000
-25.940000 -22.980000 8.505000
-26.090000 -22.950000 8.584000
-26.210000 -22.940000 8.675000
-26.300000 -22.950000 8.778000
-26.340000 -22.980000 8.903000
-26.360000 -23.020000 9.072000
-26.370000 -23.040000 9.295000
-26.450000 -23.060000 9.559000
-26.600000 -23.060000 9.840000
-26.800000 -23.050000 10.100000
-27.000000 -23.040000 10.290000
-27.190000 -23.020000 10.420000
-27.370000 -23.000000 10.500000
-27.550000 -22.970000 10.540000
-27.750000 -22.930000 10.560000
-27.970000 -22.870000 10.560000
-28.200000 -22.790000 10.550000
-28.430000 -22.700000 10.540000
-28.660000 -22.590000 10.520000
-28.880000 -22.470000 10.480000
-29.090000 -22.330000 10.420000
-29.330000 -22.170000 10.340000
-29.570000 -21.990000 10.260000
-29.810000 -21.820000 10.180000
-30.030000 -21.680000 10.110000
-30.260000 -21.550000 10.030000
-30.500000 -21.410000 9.929000
-30.740000 -21.270000 9.817000
-30.940000 -21.150000 9.688000
-31.110000 -21.040000 9.542000
-31.260000 -20.920000 9.373000
-31.410000 -20.810000 9.188000
-31.540000 -20.710000 8.997000
-31.640000 -20.620000 8.793000
-31.720000 -20.540000 8.559000
-31.800000 -20.460000 8.306000
-31.870000 -20.380000 8.052000
-31.910000 -20.310000 7.803000
-31.940000 -20.240000 7.555000
-31.950000 -20.170000 7.321000
-31.940000 -20.100000 7.126000
-31.930000 -20.060000 6.988000
-31.900000 -20.040000 6.890000
-31.870000 -20.020000 6.798000
-31.850000 -19.990000 6.698000
-31.870000 -19.920000 6.594000
-31.940000 -19.810000 6.484000
-32.040000 -19.680000 6.361000
-32.140000 -19.500000 6.218000
-32.240000 -19.280000 6.062000
-32.330000 -19.010000 5.912000
-32.390000 -18.730000 5.782000
-32.430000 -18.440000 5.672000
-32.450000 -18.140000 5.577000
-32.460000 -17.820000 5.497000
-32.450000 -17.510000 5.442000
-32.430000 -17.190000 5.412000
-32.400000 -16.870000 5.400000
-32.360000 -16.550000 5.405000
-32.320000 -16.240000 5.429000
-32.270000 -15.940000 5.475000
-32.220000 -15.650000 5.548000
-32.170000 -15.330000 5.661000
-32.110000 -14.970000 5.818000
-32.040000 -14.610000 6.002000
-31.970000 -14.290000 6.201000
-31.900000 -14.000000 6.421000
-31.820000 -13.730000 6.666000
-31.730000 -13.480000 6.915000
-31.640000 -13.260000 7.138000
-31.550000 -13.060000 7.336000
-31.440000 -12.860000 7.544000
-31.290000 -12.610000 7.767000
-31.150000 -12.330000 7.962000
-31.060000 -12.040000 8.082000
-31.030000 -11.720000 8.120000
-31.040000 -11.390000 8.107000
-31.070000 -11.060000 8.073000
-31.110000 -10.730000 8.031000
-31.140000 -10.390000 7.988000
-31.160000 -10.040000 7.950000
-31.170000 -9.701000 7.925000
-31.170000 -9.341000 7.912000
-31.150000 -8.966000 7.905000
-31.110000 -8.603000 7.905000
-31.070000 -8.252000 7.920000
-31.030000 -7.885000 7.954000
-30.980000 -7.498000 8.002000
-30.930000 -7.132000 8.057000
-30.880000 -6.800000 8.120000
-30.810000 -6.474000 8.197000
-30.730000 -6.136000 8.290000
-30.630000 -5.793000 8.394000
-30.510000 -5.465000 8.506000
-30.390000 -5.181000 8.616000
-30.260000 -4.950000 8.720000
-30.140000 -4.748000 8.831000
-29.990000 -4.553000 8.967000
-29.830000 -4.360000 9.129000
-29.640000 -4.176000 9.304000
-29.450000 -4.007000 9.473000
-29.250000 -3.852000 9.628000
-29.040000 -3.707000 9.774000
-28.810000 -3.568000 9.915000
-28.580000 -3.429000 10.050000
-28.350000 -3.283000 10.170000
-28.150000 -3.107000 10.260000
-28.000000 -2.874000 10.300000
-27.930000 -2.578000 10.270000
-27.910000 -2.240000 10.190000
-27.900000 -1.875000 10.080000
-27.880000 -1.488000 9.966000
-27.850000 -1.082000 9.836000
-27.810000 -0.667800 9.698000
-27.760000 -0.252300 9.556000
-27.690000 0.145800 9.419000
-27.620000 0.503600 9.304000
-27.540000 0.826600 9.221000
-27.440000 1.139000 9.163000
-27.340000 1.454000 9.120000
-27.230000 1.783000 9.090000
-27.110000 2.132000 9.079000
-26.980000 2.492000 9.089000
-26.850000 2.835000 9.121000
-26.730000 3.132000 9.172000
-26.600000 3.380000 9.245000
-26.460000 3.590000 9.346000
-26.300000 3.764000 9.480000
-26.120000 3.911000 9.640000
-25.940000 4.042000 9.809000
-25.740000 4.177000 9.978000
-25.530000 4.324000 10.150000
-25.300000 4.470000 10.320000
-25.090000 4.595000 10.470000
-24.890000 4.691000 10.610000
-24.710000 4.766000 10.740000
-24.510000 4.836000 10.870000
-24.310000 4.915000 11.000000
-24.110000 5.021000 11.100000
-23.970000 5.185000 11.140000
-23.910000 5.430000 11.110000
-23.910000 5.738000 11.010000
-23.940000 6.066000 10.880000
-23.970000 6.393000 10.750000
-23.980000 6.741000 10.620000
-23.940000 7.140000 10.510000
-23.850000 7.588000 10.440000
-23.720000 8.038000 10.410000
-23.560000 8.454000 10.410000
-23.400000 8.819000 10.450000
-23.220000 9.128000 10.510000
-23.030000 9.396000 10.600000
-22.810000 9.636000 10.710000
-22.570000 9.854000 10.830000
-22.310000 10.050000 10.960000
-22.030000 10.240000 11.110000
-21.750000 10.410000 11.270000
-21.480000 10.580000 11.410000
-21.280000 10.750000 11.500000
-21.180000 10.960000 11.520000
-21.180000 11.200000 11.450000
-21.260000 11.460000 11.310000
-21.360000 11.740000 11.140000
-21.450000 12.010000 10.980000
-21.520000 12.300000 10.830000
-21.550000 12.630000 10.690000
-21.550000 13.010000 10.560000
-21.520000 13.430000 10.450000
-21.440000 13.840000 10.380000
-21.340000 14.230000 10.350000
-21.200000 14.630000 10.360000
-21.030000 15.030000 10.400000
-20.850000 15.410000 10.480000
-20.650000 15.750000 10.580000
-20.450000 16.020000 10.700000
-20.230000 16.270000 10.820000
-19.990000 16.510000 10.950000
-19.740000 16.710000 11.090000
-19.490000 16.880000 11.240000
-19.240000 17.020000 11.380000
-19.050000 17.160000 11.480000
-18.930000 17.310000 11.500000
-18.910000 17.490000 11.420000
-18.970000 17.710000 11.250000
-19.060000 17.950000 11.020000
-19.150000 18.220000 10.760000
-19.220000 18.490000 10.500000
-19.280000 18.770000 10.260000
-19.310000 19.030000 10.040000
-19.340000 19.260000 9.846000
-19.340000 19.480000 9.672000
-19.310000 19.710000 9.500000
-19.240000 19.970000 9.320000
-19.150000 20.240000 9.141000
-19.030000 20.480000 8.978000
-18.900000 20.700000 8.832000
-18.750000 20.900000 8.699000
-18.570000 21.110000 8.581000
-18.370000 21.300000 8.494000
-18.160000 21.490000 8.440000
-17.940000 21.680000 8.409000
-17.720000 21.860000 8.392000
-17.510000 22.050000 8.387000
-17.290000 22.250000 8.405000
-17.050000 22.470000 8.454000
-16.810000 22.690000 8.530000
-16.590000 22.890000 8.621000
-16.410000 23.060000 8.726000
-16.240000 23.210000 8.857000
-16.060000 23.370000 9.017000
-15.880000 23.530000 9.185000
-15.690000 23.660000 9.342000
-15.510000 23.770000 9.483000
-15.310000 23.860000 9.622000
-15.080000 23.930000 9.768000
-14.840000 24.000000 9.917000
-14.600000 24.050000 10.070000
-14.370000 24.090000 10.220000
-14.140000 24.110000 10.370000
-13.930000 24.130000 10.510000
-13.730000 24.190000 10.610000
-13.570000 24.320000 10.630000
-13.440000 24.580000 10.540000
-13.310000 24.920000 10.360000
-13.160000 25.290000 10.150000
-12.990000 25.630000 9.961000
-12.820000 25.910000 9.815000
-12.640000 26.150000 9.714000
-12.440000 26.380000 9.642000
-12.180000 26.630000 9.585000
-11.900000 26.890000 9.540000
-11.630000 27.130000 9.513000
-11.380000 27.320000 9.507000
-11.130000 27.490000 9.515000
-10.870000 27.640000 9.529000
-10.590000 27.780000 9.548000
-10.290000 27.910000 9.578000
-9.989000 28.020000 9.629000
-9.693000 28.090000 9.707000
-9.413000 28.120000 9.798000
-9.178000 28.150000 9.861000
-9.029000 28.210000 9.846000
-8.977000 28.330000 9.736000
-8.980000 28.490000 9.555000
-8.982000 28.660000 9.341000
-8.956000 28.830000 9.112000
-8.906000 29.000000 8.876000
-8.841000 29.140000 8.637000
-8.762000 29.270000 8.383000
-8.662000 29.400000 8.108000
-8.539000 29.510000 7.824000
-8.385000 29.610000 7.528000
-8.192000 29.690000 7.210000
-7.967000 29.770000 6.890000
-7.722000 29.850000 6.602000
-7.458000 29.930000 6.353000
-7.185000 30.000000 6.134000
-6.912000 30.080000 5.948000
-6.633000 30.160000 5.797000
-6.340000 30.240000 5.680000
-6.039000 30.320000 5.590000
-5.737000 30.410000 5.515000
-5.445000 30.480000 5.453000
-5.180000 30.540000 5.408000
-4.939000 30.600000 5.382000
-4.699000 30.650000 5.367000
-4.433000 30.710000 5.359000
-4.134000 30.760000 5.361000
-3.798000 30.820000 5.384000
-3.412000 30.880000 5.445000
-2.984000 30.950000 5.544000
-2.572000 31.010000 5.666000
-2.232000 31.070000 5.804000
-1.953000 31.120000 5.962000
-1.701000 31.160000 6.141000
-1.457000 31.190000 6.328000
-1.225000 31.210000 6.513000
-1.007000 31.210000 6.699000
-0.797100 31.200000 6.902000
-0.583100 31.180000 7.132000
-0.365900 31.130000 7.377000
-0.154800 31.080000 7.615000
0.047140 31.000000 7.839000
0.236700 30.920000 8.052000
0.407400 30.820000 8.258000
0.563000 30.700000 8.470000
0.715700 30.570000 8.688000
0.877200 30.450000 8.888000
1.062000 30.370000 9.026000
1.286000 30.340000 9.073000
1.551000 30.370000 9.037000
1.844000 30.420000 8.954000
2.163000 30.460000 8.846000
2.508000 30.490000 8.722000
2.864000 30.510000 8.590000
3.226000 30.500000 8.455000
3.597000 30.480000 8.316000
3.966000 30.440000 8.179000
4.308000 30.390000 8.061000
4.623000 30.330000 7.970000
4.932000 30.260000 7.906000
5.242000 30.160000 7.866000
5.548000 30.060000 7.850000
5.843000 29.950000 7.854000
6.123000 29.840000 7.873000
6.393000 29.720000 7.908000
6.666000 29.590000 7.964000
6.949000 29.440000 8.040000
7.237000 29.280000 8.127000
7.521000 29.110000 8.216000
7.790000 28.950000 8.303000
8.038000 28.790000 8.386000
8.261000 28.640000 8.473000
8.460000 28.500000 8.583000
8.658000 28.330000 8.738000
8.876000 28.140000 8.943000
9.104000 27.940000 9.169000
9.319000 27.750000 9.380000
9.520000 27.560000 9.561000
9.714000 27.400000 9.685000
9.904000 27.280000 9.719000
10.100000 27.220000 9.657000
10.290000 27.170000 9.529000
10.490000 27.140000 9.371000
10.670000 27.090000 9.208000
10.850000 27.030000 9.057000
11.020000 26.940000 8.921000
11.200000 26.840000 8.791000
11.390000 26.700000 8.656000
11.590000 26.540000 8.515000
11.810000 26.350000 8.378000
12.030000 26.160000 8.259000
12.240000 25.980000 8.163000
12.440000 25.800000 8.087000
12.650000 25.620000 8.027000
12.890000 25.410000 7.988000
13.140000 25.180000 7.977000
13.380000 24.960000 8.001000
13.600000 24.770000 8.062000
13.790000 24.600000 8.149000
13.970000 24.440000 8.253000
14.160000 24.280000 8.384000
14.370000 24.100000 8.554000
14.590000 23.910000 8.747000
14.770000 23.730000 8.937000
14.920000 23.560000 9.131000
15.050000 23.350000 9.339000
15.190000 23.140000 9.524000
15.340000 22.960000 9.631000
15.500000 22.820000 9.644000
15.690000 22.710000 9.583000
15.910000 22.580000 9.478000
16.140000 22.450000 9.351000
16.380000 22.310000 9.224000
16.610000 22.170000 9.108000
16.830000 22.020000 9.001000
17.060000 21.850000 8.891000
17.300000 21.660000 8.774000
17.540000 21.460000 8.655000
17.790000 21.230000 8.537000
18.040000 20.980000 8.425000
18.300000 20.710000 8.330000
18.530000 20.450000 8.256000
18.720000 20.220000 8.207000
18.870000 20.000000 8.182000
19.010000 19.780000 8.177000
19.140000 19.540000 8.188000
19.270000 19.300000 8.216000
19.380000 19.060000 8.264000
19.480000 18.820000 8.330000
19.570000 18.590000 8.413000
19.650000 18.360000 8.520000
19.710000 18.120000 8.656000
19.760000 17.870000 8.821000
19.780000 17.610000 9.019000
19.770000 17.310000 9.260000
19.740000 17.000000 9.539000
19.710000 16.670000 9.833000
19.670000 16.360000 10.120000
19.630000 16.070000 10.390000
19.600000 15.800000 10.630000
19.560000 15.570000 10.830000
19.510000 15.370000 11.000000
19.460000 15.180000 11.130000
19.450000 14.990000 11.200000
19.520000 14.810000 11.180000
19.670000 14.630000 11.070000
19.870000 14.460000 10.900000
20.100000 14.280000 10.710000
20.300000 14.110000 10.530000
20.480000 13.940000 10.380000
20.650000 13.740000 10.250000
20.810000 13.520000 10.130000
20.960000 13.280000 10.040000
21.100000 13.030000 9.959000
21.220000 12.780000 9.905000
21.320000 12.540000 9.871000
21.410000 12.300000 9.856000
21.490000 12.050000 9.857000
21.560000 11.770000 9.879000
21.620000 11.460000 9.928000
21.660000 11.140000 10.010000
21.660000 10.770000 10.150000
21.620000 10.360000 10.340000
21.540000 9.953000 10.560000
21.450000 9.564000 10.770000
21.370000 9.202000 10.960000
21.330000 8.881000 11.090000
21.390000 8.620000 11.130000
21.530000 8.416000 11.070000
21.760000 8.230000 10.930000
22.040000 8.031000 10.740000
22.320000 7.819000 10.520000
22.570000 7.608000 10.310000
22.780000 7.397000 10.140000
22.960000 7.165000 9.996000
23.110000 6.903000 9.873000
23.250000 6.622000 9.766000
23.370000 6.325000 9.682000
23.500000 6.005000 9.627000
23.620000 5.669000 9.602000
23.750000 5.339000 9.606000
23.870000 5.028000 9.639000
23.970000 4.739000 9.698000
24.060000 4.481000 9.776000
24.120000 4.245000 9.876000
24.150000 4.002000 10.000000
24.160000 3.738000 10.150000
24.170000 3.458000 10.300000
24.170000 3.163000 10.440000
24.220000 2.854000 10.530000
24.350000 2.552000 10.520000
24.580000 2.284000 10.380000
24.860000 2.053000 10.140000
25.140000 1.844000 9.885000
25.380000 1.648000 9.642000
25.590000 1.442000 9.442000
25.760000 1.200000 9.286000
25.920000 0.907500 9.162000
26.070000 0.585400 9.063000
26.200000 0.259300 8.995000
26.320000 -0.062890 8.963000
26.430000 -0.388200 8.973000
26.520000 -0.726300 9.022000
26.600000 -1.077000 9.100000
26.670000 -1.431000 9.197000
26.740000 -1.782000 9.301000
26.790000 -2.127000 9.410000
26.840000 -2.463000 9.524000
26.870000 -2.792000 9.649000
26.900000 -3.128000 9.790000
26.920000 -3.470000 9.940000
26.930000 -3.812000 10.090000
26.940000 -4.149000 10.230000
26.960000 -4.474000 10.360000
26.990000 -4.762000 10.470000
27.060000 -4.989000 10.510000
27.190000 -5.161000 10.470000
27.370000 -5.312000 10.370000
27.590000 -5.467000 10.210000
27.820000 -5.626000 10.050000
28.020000 -5.777000 9.893000
28.200000 -5.921000 9.763000
28.350000 -6.072000 9.642000
28.510000 -6.244000 9.510000
28.660000 -6.442000 9.365000
28.800000 -6.656000 9.219000
28.930000 -6.869000 9.088000
29.040000 -7.067000 8.978000
29.140000 -7.256000 8.877000
29.230000 -7.462000 8.767000
29.310000 -7.694000 8.650000
29.380000 -7.947000 8.539000
29.440000 -8.228000 8.438000
29.500000 -8.542000 8.343000
29.550000 -8.870000 8.253000
29.590000 -9.190000 8.177000
29.610000 -9.510000 8.115000
29.620000 -9.848000 8.062000
29.630000 -10.200000 8.014000
29.620000 -10.530000 7.978000
29.590000 -10.850000 7.961000
29.550000 -11.160000 7.966000
29.490000 -11.490000 7.986000
29.420000 -11.820000 8.014000
29.340000 -12.150000 8.048000
29.250000 -12.480000 8.087000
29.150000 -12.820000 8.126000
29.040000 -13.140000 8.164000
28.910000 -13.440000 8.207000
28.770000 -13.730000 8.262000
28.620000 -14.000000 8.325000
28.490000 -14.260000 8.371000
28.420000 -14.490000 8.365000
28.440000 -14.690000 8.276000
28.540000 -14.860000 8.109000
28.690000 -15.030000 7.886000
28.850000 -15.230000 7.637000
28.990000 -15.460000 7.390000
29.110000 -15.730000 7.151000
29.210000 -16.040000 6.927000
29.280000 -16.340000 6.738000
29.320000 -16.630000 6.587000
29.350000 -16.910000 6.460000
29.350000 -17.190000 6.347000
29.350000 -17.460000 6.250000
29.320000 -17.710000 6.167000
29.280000 -17.990000 6.088000
29.220000 -18.300000 5.999000
29.150000 -18.650000 5.902000
29.060000 -18.990000 5.809000
28.970000 -19.330000 5.729000
28.860000 -19.680000 5.659000
28.730000 -20.060000 5.597000
28.590000 -20.450000 5.538000
28.450000 -20.810000 5.485000
28.320000 -21.120000 5.441000
28.200000 -21.390000 5.408000
28.070000 -21.640000 5.383000
27.920000 -21.910000 5.366000
27.760000 -22.160000 5.363000
27.610000 -22.390000 5.384000
27.450000 -22.580000 5.435000
27.300000 -22.750000 5.513000
27.140000 -22.900000 5.612000
26.990000 -23.010000 5.728000
26.860000 -23.100000 5.857000
26.740000 -23.150000 5.990000
26.670000 -23.200000 6.114000
26.650000 -23.240000 6.236000
26.690000 -23.320000 6.382000
26.760000 -23.410000 6.564000
26.830000 -23.500000 6.774000
26.890000 -23.580000 7.013000
26.940000 -23.670000 7.291000
26.990000 -23.770000 7.600000
27.010000 -23.860000 7.911000
27.000000 -23.940000 8.189000
26.950000 -24.010000 8.418000
26.870000 -24.060000 8.598000
26.720000 -24.100000 8.739000
26.530000 -24.140000 8.856000
26.300000 -24.160000 8.955000
26.060000 -24.180000 9.041000
25.790000 -24.210000 9.121000
25.500000 -24.240000 9.202000
25.200000 -24.280000 9.285000
24.910000 -24.300000 9.365000
24.630000 -24.320000 9.443000
974
