CHECKED_BY_BANNA
24.380000 -16.840000 20.130000
24.150000 -16.820000 20.100000
23.920000 -16.800000 20.070000
23.700000 -16.760000 20.030000
23.480000 -16.720000 19.980000
23.270000 -16.680000 19.920000
23.060000 -16.630000 19.850000
22.850000 -16.570000 19.770000
22.650000 -16.510000 19.680000
22.440000 -16.450000 19.580000
22.240000 -16.380000 19.470000
22.050000 -16.310000 19.360000
21.860000 -16.250000 19.240000
21.670000 -16.180000 19.100000
21.490000 -16.110000 18.960000
21.320000 -16.040000 18.820000
21.160000 -15.970000 18.660000
21.010000 -15.900000 18.490000
20.880000 -15.830000 18.320000
20.750000 -15.760000 18.130000
20.630000 -15.680000 17.940000
20.530000 -15.600000 17.740000
20.440000 -15.520000 17.540000
20.350000 -15.440000 17.330000
20.280000 -15.350000 17.120000
20.220000 -15.260000 16.910000
20.170000 -15.160000 16.700000
20.130000 -15.070000 16.490000
20.100000 -14.970000 16.290000
20.070000 -14.870000 16.090000
20.050000 -14.770000 15.900000
20.030000 -14.660000 15.720000
20.010000 -14.560000 15.540000
20.000000 -14.450000 15.370000
19.980000 -14.340000 15.200000
19.960000 -14.230000 15.030000
19.950000 -14.110000 14.870000
19.930000 -13.980000 14.700000
19.910000 -13.850000 14.540000
19.890000 -13.710000 14.380000
19.870000 -13.570000 14.220000
19.850000 -13.410000 14.050000
19.830000 -13.250000 13.890000
19.810000 -13.070000 13.720000
19.790000 -12.890000 13.560000
19.770000 -12.700000 13.400000
19.760000 -12.500000 13.240000
19.750000 -12.300000 13.090000
19.740000 -12.090000 12.930000
19.730000 -11.880000 12.790000
19.720000 -11.660000 12.640000
19.720000 -11.440000 12.500000
19.710000 -11.220000 12.360000
19.700000 -11.000000 12.230000
19.690000 -10.780000 12.100000
19.680000 -10.550000 11.980000
19.660000 -10.320000 11.860000
19.650000 -10.090000 11.740000
19.630000 -9.849000 11.620000
19.610000 -9.603000 11.510000
19.590000 -9.350000 11.390000
19.560000 -9.091000 11.280000
19.530000 -8.826000 11.170000
19.500000 -8.556000 11.060000
19.460000 -8.280000 10.940000
19.420000 -8.000000 10.830000
19.380000 -7.716000 10.710000
19.330000 -7.428000 10.590000
19.280000 -7.138000 10.470000
19.230000 -6.844000 10.350000
19.170000 -6.549000 10.240000
19.110000 -6.250000 10.120000
19.050000 -5.948000 10.000000
18.990000 -5.642000 9.887000
18.920000 -5.332000 9.774000
18.860000 -5.016000 9.663000
18.790000 -4.692000 9.554000
18.720000 -4.362000 9.447000
18.650000 -4.023000 9.343000
18.580000 -3.675000 9.243000
18.510000 -3.320000 9.146000
18.430000 -2.958000 9.054000
18.360000 -2.589000 8.968000
18.280000 -2.215000 8.889000
18.200000 -1.836000 8.817000
18.120000 -1.454000 8.753000
18.030000 -1.071000 8.696000
17.940000 -0.686400 8.648000
17.850000 -0.303400 8.607000
17.770000 0.077150 8.573000
17.680000 0.453700 8.546000
17.590000 0.824900 8.523000
17.500000 1.190000 8.505000
17.410000 1.548000 8.491000
17.330000 1.900000 8.479000
17.240000 2.245000 8.470000
17.170000 2.585000 8.462000
17.090000 2.920000 8.454000
17.020000 3.253000 8.446000
16.960000 3.584000 8.438000
16.890000 3.914000 8.427000
16.840000 4.246000 8.415000
16.780000 4.579000 8.401000
16.730000 4.916000 8.384000
16.690000 5.255000 8.365000
16.650000 5.598000 8.342000
16.610000 5.944000 8.318000
16.570000 6.295000 8.291000
16.540000 6.650000 8.263000
16.510000 7.009000 8.233000
16.480000 7.372000 8.203000
16.450000 7.738000 8.173000
16.420000 8.108000 8.145000
16.390000 8.480000 8.118000
16.360000 8.854000 8.093000
16.320000 9.228000 8.071000
16.280000 9.603000 8.053000
16.240000 9.976000 8.038000
16.190000 10.350000 8.028000
16.130000 10.710000 8.022000
16.070000 11.080000 8.019000
16.000000 11.430000 8.019000
15.930000 11.780000 8.021000
15.860000 12.130000 8.023000
15.780000 12.470000 8.025000
15.690000 12.800000 8.025000
15.610000 13.120000 8.022000
15.520000 13.440000 8.015000
15.430000 13.750000 8.004000
15.340000 14.060000 7.987000
15.250000 14.360000 7.965000
15.170000 14.650000 7.938000
15.080000 14.940000 7.906000
14.990000 15.230000 7.870000
14.900000 15.510000 7.830000
14.810000 15.790000 7.787000
14.720000 16.060000 7.740000
14.620000 16.330000 7.692000
14.520000 16.590000 7.641000
14.410000 16.850000 7.588000
14.300000 17.110000 7.533000
14.170000 17.360000 7.476000
14.050000 17.610000 7.418000
13.910000 17.860000 7.358000
13.780000 18.100000 7.297000
13.630000 18.330000 7.235000
13.480000 18.560000 7.171000
13.330000 18.790000 7.107000
13.170000 19.010000 7.043000
13.000000 19.230000 6.977000
12.830000 19.440000 6.910000
12.650000 19.660000 6.842000
12.460000 19.870000 6.773000
12.270000 20.080000 6.703000
12.080000 20.290000 6.631000
11.880000 20.500000 6.559000
11.680000 20.700000 6.487000
11.470000 20.900000 6.416000
11.260000 21.100000 6.346000
11.050000 21.290000 6.278000
10.840000 21.480000 6.214000
10.630000 21.650000 6.155000
10.410000 21.810000 6.100000
10.200000 21.970000 6.050000
9.991000 22.110000 6.006000
9.778000 22.250000 5.965000
9.561000 22.370000 5.929000
9.342000 22.490000 5.896000
9.117000 22.600000 5.866000
8.888000 22.700000 5.838000
8.653000 22.810000 5.812000
8.413000 22.900000 5.788000
8.168000 23.000000 5.767000
7.920000 23.090000 5.749000
7.670000 23.180000 5.735000
7.418000 23.260000 5.725000
7.166000 23.340000 5.720000
6.913000 23.410000 5.721000
6.659000 23.470000 5.727000
6.405000 23.540000 5.738000
6.147000 23.590000 5.754000
5.886000 23.640000 5.774000
5.620000 23.680000 5.795000
5.348000 23.720000 5.818000
5.069000 23.760000 5.840000
4.782000 23.790000 5.860000
4.487000 23.820000 5.878000
4.185000 23.850000 5.892000
3.877000 23.870000 5.902000
3.564000 23.900000 5.908000
3.248000 23.920000 5.911000
2.932000 23.930000 5.909000
2.616000 23.940000 5.905000
2.303000 23.960000 5.898000
1.995000 23.960000 5.889000
1.693000 23.970000 5.879000
1.398000 23.980000 5.868000
1.110000 23.980000 5.856000
0.829800 23.980000 5.844000
0.557900 23.970000 5.832000
0.294200 23.970000 5.821000
0.038650 23.960000 5.812000
-0.208700 23.940000 5.804000
-0.447900 23.920000 5.797000
-0.679500 23.890000 5.794000
-0.904100 23.860000 5.793000
-1.123000 23.820000 5.795000
-1.336000 23.770000 5.800000
-1.547000 23.700000 5.809000
-1.756000 23.630000 5.822000
-1.965000 23.550000 5.839000
-2.177000 23.450000 5.860000
-2.393000 23.350000 5.886000
-2.614000 23.230000 5.916000
-2.841000 23.100000 5.949000
-3.074000 22.970000 5.985000
-3.315000 22.820000 6.024000
-3.562000 22.670000 6.065000
-3.815000 22.510000 6.107000
-4.072000 22.340000 6.150000
-4.332000 22.170000 6.193000
-4.593000 21.990000 6.238000
-4.854000 21.810000 6.283000
-5.113000 21.630000 6.329000
-5.368000 21.440000 6.377000
-5.617000 21.240000 6.427000
-5.861000 21.040000 6.479000
-6.098000 20.830000 6.535000
-6.330000 20.620000 6.592000
-6.555000 20.390000 6.653000
-6.776000 20.160000 6.716000
-6.993000 19.910000 6.780000
-7.208000 19.650000 6.845000
-7.421000 19.390000 6.910000
-7.633000 19.110000 6.975000
-7.845000 18.830000 7.038000
-8.055000 18.540000 7.099000
-8.263000 18.240000 7.158000
-8.468000 17.950000 7.215000
-8.669000 17.650000 7.269000
-8.862000 17.360000 7.322000
-9.047000 17.070000 7.372000
-9.222000 16.790000 7.422000
-9.385000 16.510000 7.470000
-9.537000 16.240000 7.516000
-9.677000 15.980000 7.561000
-9.806000 15.720000 7.603000
-9.924000 15.460000 7.643000
-10.030000 15.210000 7.679000
-10.140000 14.950000 7.710000
-10.230000 14.690000 7.737000
-10.330000 14.420000 7.759000
-10.420000 14.140000 7.774000
-10.520000 13.860000 7.784000
-10.620000 13.560000 7.789000
-10.720000 13.260000 7.788000
-10.820000 12.940000 7.782000
-10.930000 12.620000 7.773000
-11.040000 12.300000 7.762000
-11.150000 11.980000 7.748000
-11.270000 11.660000 7.734000
-11.390000 11.340000 7.721000
-11.510000 11.020000 7.709000
-11.620000 10.710000 7.700000
-11.730000 10.400000 7.693000
-11.840000 10.100000 7.690000
-11.950000 9.802000 7.690000
-12.060000 9.507000 7.694000
-12.160000 9.214000 7.701000
-12.260000 8.923000 7.711000
-12.360000 8.633000 7.724000
-12.450000 8.343000 7.739000
-12.550000 8.055000 7.756000
-12.650000 7.766000 7.776000
-12.750000 7.478000 7.797000
-12.850000 7.190000 7.820000
-12.950000 6.901000 7.844000
-13.060000 6.611000 7.870000
-13.170000 6.319000 7.897000
-13.290000 6.026000 7.925000
-13.410000 5.731000 7.954000
-13.540000 5.433000 7.984000
-13.670000 5.132000 8.014000
-13.810000 4.829000 8.046000
-13.960000 4.523000 8.079000
-14.110000 4.216000 8.112000
-14.270000 3.907000 8.147000
-14.430000 3.597000 8.183000
-14.600000 3.286000 8.221000
-14.760000 2.974000 8.260000
-14.930000 2.663000 8.302000
-15.100000 2.351000 8.346000
-15.260000 2.039000 8.393000
-15.420000 1.726000 8.442000
-15.570000 1.412000 8.494000
-15.720000 1.097000 8.548000
-15.870000 0.778800 8.605000
-16.000000 0.458100 8.665000
-16.130000 0.134000 8.726000
-16.260000 -0.194100 8.790000
-16.370000 -0.526700 8.856000
-16.480000 -0.864100 8.923000
-16.590000 -1.207000 8.992000
-16.690000 -1.555000 9.062000
-16.790000 -1.910000 9.134000
-16.880000 -2.271000 9.206000
-16.970000 -2.638000 9.279000
-17.050000 -3.011000 9.354000
-17.140000 -3.389000 9.429000
-17.220000 -3.771000 9.505000
-17.300000 -4.156000 9.583000
-17.380000 -4.541000 9.663000
-17.470000 -4.927000 9.747000
-17.540000 -5.310000 9.836000
-17.620000 -5.689000 9.931000
-17.700000 -6.065000 10.040000
-17.780000 -6.437000 10.150000
-17.850000 -6.806000 10.290000
-17.930000 -7.171000 10.440000
-18.000000 -7.535000 10.610000
-18.070000 -7.899000 10.800000
-18.130000 -8.263000 11.030000
-18.200000 -8.629000 11.270000
-18.260000 -8.998000 11.540000
-18.320000 -9.368000 11.840000
-18.380000 -9.738000 12.160000
-18.440000 -10.110000 12.490000
-18.500000 -10.470000 12.850000
-18.570000 -10.830000 13.210000
-18.630000 -11.190000 13.580000
-18.710000 -11.520000 13.960000
-18.780000 -11.850000 14.330000
-18.870000 -12.150000 14.700000
-18.960000 -12.430000 15.060000
-19.060000 -12.690000 15.410000
-19.160000 -12.930000 15.730000
-19.260000 -13.140000 16.040000
-19.370000 -13.320000 16.330000
-19.480000 -13.480000 16.600000
-19.590000 -13.610000 16.850000
-19.700000 -13.720000 17.080000
-19.810000 -13.820000 17.290000
-19.920000 -13.890000 17.490000
-20.030000 -13.960000 17.680000
-20.130000 -14.010000 17.870000
-20.230000 -14.050000 18.040000
-20.330000 -14.080000 18.200000
-20.420000 -14.100000 18.360000
-20.510000 -14.110000 18.510000
-20.600000 -14.120000 18.650000
-20.680000 -14.130000 18.790000
-20.770000 -14.130000 18.930000
-20.870000 -14.120000 19.070000
-20.970000 -14.120000 19.210000
-21.080000 -14.100000 19.360000
-21.200000 -14.090000 19.500000
-21.340000 -14.070000 19.650000
-21.480000 -14.050000 19.810000
-21.640000 -14.030000 19.960000
-21.820000 -14.000000 20.120000
-22.000000 -13.970000 20.270000
-22.190000 -13.940000 20.420000
-22.390000 -13.900000 20.560000
-22.600000 -13.850000 20.690000
-22.810000 -13.800000 20.810000
-23.020000 -13.750000 20.920000
-23.240000 -13.690000 21.010000
-23.460000 -13.620000 21.100000
-23.670000 -13.550000 21.170000
-23.890000 -13.470000 21.230000
-24.110000 -13.390000 21.290000
-24.320000 -13.300000 21.330000
-24.540000 -13.210000 21.370000
-24.760000 -13.120000 21.390000
-24.970000 -13.020000 21.410000
-25.180000 -12.910000 21.410000
-25.400000 -12.810000 21.410000
-25.600000 -12.700000 21.380000
-25.810000 -12.590000 21.350000
-26.010000 -12.480000 21.300000
-26.200000 -12.370000 21.240000
-26.390000 -12.250000 21.170000
-26.570000 -12.140000 21.080000
-26.740000 -12.030000 20.980000
-26.900000 -11.910000 20.870000
-27.040000 -11.800000 20.760000
-27.180000 -11.690000 20.630000
-27.310000 -11.570000 20.500000
-27.430000 -11.460000 20.370000
-27.540000 -11.340000 20.230000
-27.640000 -11.220000 20.080000
-27.740000 -11.090000 19.940000
-27.830000 -10.950000 19.780000
-27.920000 -10.810000 19.630000
-28.010000 -10.650000 19.460000
-28.100000 -10.480000 19.290000
-28.180000 -10.290000 19.120000
-28.250000 -10.080000 18.940000
-28.320000 -9.860000 18.750000
-28.380000 -9.625000 18.560000
-28.420000 -9.377000 18.370000
-28.450000 -9.119000 18.190000
-28.470000 -8.853000 18.000000
-28.470000 -8.581000 17.820000
-28.450000 -8.305000 17.650000
-28.420000 -8.029000 17.480000
-28.360000 -7.754000 17.330000
-28.300000 -7.483000 17.190000
-28.210000 -7.215000 17.070000
-28.110000 -6.954000 16.960000
-28.000000 -6.701000 16.860000
-27.880000 -6.456000 16.790000
-27.740000 -6.221000 16.720000
-27.600000 -5.996000 16.670000
-27.440000 -5.782000 16.630000
-27.280000 -5.580000 16.610000
-27.120000 -5.390000 16.590000
-26.950000 -5.212000 16.580000
-26.790000 -5.047000 16.570000
-26.630000 -4.893000 16.560000
-26.490000 -4.749000 16.560000
-26.360000 -4.614000 16.550000
-26.250000 -4.487000 16.530000
-26.170000 -4.365000 16.500000
-26.110000 -4.245000 16.460000
-26.070000 -4.128000 16.410000
-26.060000 -4.010000 16.340000
-26.080000 -3.890000 16.250000
-26.110000 -3.767000 16.150000
-26.160000 -3.641000 16.020000
-26.230000 -3.510000 15.880000
-26.300000 -3.376000 15.730000
-26.380000 -3.237000 15.560000
-26.450000 -3.094000 15.370000
-26.530000 -2.947000 15.180000
-26.610000 -2.796000 14.980000
-26.670000 -2.641000 14.780000
-26.740000 -2.483000 14.580000
-26.800000 -2.322000 14.380000
-26.850000 -2.157000 14.180000
-26.900000 -1.988000 13.990000
-26.940000 -1.814000 13.800000
-26.980000 -1.634000 13.620000
-27.000000 -1.447000 13.440000
-27.020000 -1.250000 13.270000
-27.030000 -1.043000 13.100000
-27.020000 -0.824900 12.940000
-27.000000 -0.594700 12.780000
-26.970000 -0.352800 12.620000
-26.920000 -0.100400 12.470000
-26.850000 0.160700 12.330000
-26.770000 0.428200 12.190000
-26.670000 0.699400 12.060000
-26.560000 0.971200 11.950000
-26.430000 1.241000 11.840000
-26.290000 1.506000 11.740000
-26.140000 1.764000 11.660000
-25.970000 2.014000 11.580000
-25.810000 2.253000 11.520000
-25.640000 2.481000 11.470000
-25.460000 2.697000 11.430000
-25.290000 2.900000 11.410000
-25.110000 3.090000 11.390000
-24.940000 3.268000 11.390000
-24.770000 3.434000 11.390000
-24.600000 3.589000 11.400000
-24.440000 3.734000 11.420000
-24.280000 3.871000 11.450000
-24.120000 4.001000 11.480000
-23.980000 4.126000 11.500000
-23.840000 4.249000 11.530000
-23.710000 4.370000 11.550000
-23.590000 4.492000 11.550000
-23.490000 4.617000 11.540000
-23.400000 4.746000 11.520000
-23.340000 4.881000 11.470000
-23.290000 5.023000 11.410000
-23.260000 5.175000 11.330000
-23.250000 5.336000 11.230000
-23.250000 5.509000 11.110000
-23.260000 5.693000 10.980000
-23.280000 5.890000 10.840000
-23.310000 6.099000 10.700000
-23.330000 6.320000 10.550000
-23.350000 6.554000 10.400000
-23.360000 6.800000 10.250000
-23.360000 7.058000 10.100000
-23.340000 7.326000 9.950000
-23.320000 7.604000 9.809000
-23.280000 7.891000 9.673000
-23.230000 8.185000 9.543000
-23.160000 8.486000 9.420000
-23.070000 8.790000 9.305000
-22.980000 9.097000 9.197000
-22.870000 9.404000 9.098000
-22.750000 9.709000 9.008000
-22.610000 10.010000 8.928000
-22.470000 10.310000 8.857000
-22.320000 10.590000 8.795000
-22.160000 10.870000 8.745000
-22.000000 11.140000 8.704000
-21.830000 11.390000 8.674000
-21.650000 11.630000 8.654000
-21.460000 11.860000 8.643000
-21.270000 12.070000 8.643000
-21.070000 12.270000 8.650000
-20.870000 12.460000 8.666000
-20.670000 12.640000 8.688000
-20.460000 12.800000 8.716000
-20.260000 12.960000 8.748000
-20.050000 13.100000 8.781000
-19.850000 13.240000 8.814000
-19.660000 13.370000 8.844000
-19.470000 13.490000 8.869000
-19.290000 13.610000 8.886000
-19.130000 13.730000 8.894000
-18.980000 13.840000 8.889000
-18.850000 13.950000 8.870000
-18.730000 14.060000 8.838000
-18.630000 14.170000 8.791000
-18.550000 14.290000 8.731000
-18.480000 14.410000 8.660000
-18.430000 14.530000 8.578000
-18.390000 14.670000 8.489000
-18.350000 14.810000 8.395000
-18.330000 14.960000 8.298000
-18.300000 15.120000 8.201000
-18.280000 15.300000 8.105000
-18.260000 15.480000 8.013000
-18.230000 15.670000 7.926000
-18.190000 15.870000 7.846000
-18.140000 16.090000 7.774000
-18.090000 16.310000 7.712000
-18.020000 16.530000 7.661000
-17.940000 16.770000 7.622000
-17.840000 17.010000 7.597000
-17.730000 17.250000 7.585000
-17.600000 17.490000 7.588000
-17.470000 17.740000 7.604000
-17.320000 17.980000 7.633000
-17.160000 18.210000 7.673000
-17.000000 18.440000 7.723000
-16.830000 18.660000 7.779000
-16.660000 18.860000 7.839000
-16.490000 19.060000 7.900000
-16.320000 19.240000 7.958000
-16.160000 19.400000 8.011000
-16.010000 19.550000 8.057000
-15.870000 19.690000 8.092000
-15.740000 19.810000 8.116000
-15.630000 19.920000 8.127000
-15.530000 20.020000 8.125000
-15.440000 20.110000 8.108000
-15.360000 20.190000 8.078000
-15.300000 20.270000 8.034000
-15.250000 20.350000 7.978000
-15.210000 20.420000 7.910000
-15.180000 20.510000 7.830000
-15.150000 20.590000 7.741000
-15.130000 20.690000 7.642000
-15.110000 20.790000 7.536000
-15.100000 20.900000 7.422000
-15.080000 21.030000 7.302000
-15.060000 21.170000 7.177000
-15.040000 21.310000 7.049000
-15.010000 21.480000 6.920000
-14.980000 21.650000 6.790000
-14.940000 21.830000 6.662000
-14.890000 22.020000 6.538000
-14.830000 22.230000 6.419000
-14.760000 22.440000 6.308000
-14.670000 22.650000 6.207000
-14.570000 22.870000 6.116000
-14.460000 23.100000 6.039000
-14.330000 23.320000 5.977000
-14.200000 23.550000 5.930000
-14.040000 23.770000 5.898000
-13.880000 23.990000 5.883000
-13.710000 24.210000 5.882000
-13.540000 24.410000 5.894000
-13.360000 24.610000 5.917000
-13.180000 24.800000 5.948000
-13.010000 24.980000 5.984000
-12.840000 25.140000 6.020000
-12.680000 25.290000 6.054000
-12.530000 25.420000 6.080000
-12.390000 25.540000 6.097000
-12.270000 25.640000 6.101000
-12.160000 25.730000 6.091000
-12.070000 25.810000 6.064000
-11.990000 25.880000 6.021000
-11.920000 25.940000 5.962000
-11.860000 25.990000 5.886000
-11.810000 26.050000 5.794000
-11.770000 26.100000 5.688000
-11.720000 26.160000 5.570000
-11.680000 26.230000 5.440000
-11.630000 26.300000 5.303000
-11.570000 26.390000 5.159000
-11.510000 26.490000 5.012000
-11.440000 26.610000 4.865000
-11.370000 26.740000 4.721000
-11.280000 26.890000 4.584000
-11.170000 27.050000 4.455000
-11.060000 27.230000 4.338000
-10.940000 27.410000 4.234000
-10.800000 27.610000 4.146000
-10.650000 27.820000 4.074000
-10.480000 28.040000 4.019000
-10.310000 28.250000 3.983000
-10.130000 28.470000 3.964000
-9.946000 28.690000 3.963000
-9.754000 28.890000 3.979000
-9.560000 29.100000 4.011000
-9.366000 29.290000 4.057000
-9.174000 29.460000 4.116000
-8.987000 29.630000 4.185000
-8.807000 29.780000 4.263000
-8.636000 29.910000 4.346000
-8.476000 30.020000 4.432000
-8.329000 30.120000 4.519000
-8.194000 30.200000 4.605000
-8.072000 30.270000 4.689000
-7.962000 30.330000 4.769000
-7.865000 30.370000 4.844000
-7.777000 30.410000 4.915000
-7.700000 30.430000 4.982000
-7.630000 30.460000 5.044000
-7.567000 30.470000 5.101000
-7.510000 30.490000 5.156000
-7.458000 30.500000 5.206000
-7.411000 30.510000 5.253000
-7.367000 30.510000 5.296000
-7.328000 30.520000 5.336000
-7.292000 30.530000 5.372000
-7.260000 30.540000 5.406000
-7.230000 30.550000 5.438000
-7.203000 30.560000 5.467000
-7.178000 30.560000 5.494000
-7.155000 30.570000 5.520000
-7.133000 30.580000 5.544000
-7.112000 30.590000 5.568000
-7.092000 30.600000 5.592000
-7.072000 30.610000 5.614000
-7.053000 30.620000 5.637000
-7.035000 30.630000 5.659000
-7.017000 30.630000 5.682000
-6.999000 30.640000 5.704000
-6.982000 30.650000 5.725000
-6.965000 30.660000 5.747000
-6.948000 30.670000 5.768000
-6.932000 30.670000 5.789000
-6.917000 30.680000 5.810000
-6.902000 30.690000 5.830000
-6.888000 30.690000 5.850000
-6.874000 30.700000 5.870000
-6.860000 30.710000 5.889000
-6.847000 30.710000 5.909000
-6.834000 30.720000 5.928000
-6.822000 30.720000 5.948000
-6.809000 30.730000 5.969000
-6.796000 30.740000 5.991000
-6.782000 30.740000 6.013000
-6.769000 30.750000 6.036000
-6.755000 30.750000 6.060000
-6.741000 30.760000 6.085000
-6.726000 30.760000 6.110000
-6.711000 30.770000 6.137000
-6.696000 30.780000 6.165000
-6.681000 30.780000 6.193000
-6.665000 30.790000 6.222000
-6.649000 30.790000 6.252000
-6.633000 30.800000 6.283000
-6.616000 30.800000 6.315000
-6.599000 30.810000 6.347000
-6.581000 30.810000 6.380000
-6.563000 30.820000 6.413000
-6.545000 30.820000 6.446000
-6.527000 30.830000 6.480000
-6.508000 30.830000 6.513000
-6.490000 30.840000 6.547000
-6.471000 30.840000 6.580000
-6.452000 30.840000 6.613000
-6.434000 30.850000 6.645000
-6.415000 30.850000 6.677000
-6.396000 30.860000 6.707000
-6.377000 30.860000 6.735000
-6.357000 30.860000 6.761000
-6.338000 30.860000 6.784000
-6.318000 30.870000 6.802000
-6.299000 30.870000 6.816000
-6.279000 30.870000 6.823000
-6.259000 30.880000 6.825000
-6.240000 30.880000 6.820000
-6.220000 30.880000 6.808000
-6.201000 30.880000 6.789000
-6.182000 30.890000 6.765000
-6.164000 30.890000 6.735000
-6.145000 30.890000 6.701000
-6.127000 30.890000 6.663000
-6.109000 30.900000 6.623000
-6.092000 30.900000 6.581000
-6.075000 30.900000 6.538000
-6.058000 30.900000 6.494000
-6.041000 30.900000 6.451000
-6.024000 30.900000 6.407000
-6.007000 30.910000 6.364000
-5.991000 30.910000 6.322000
-5.974000 30.910000 6.280000
-5.958000 30.910000 6.238000
-5.942000 30.910000 6.198000
-5.926000 30.910000 6.158000
-5.910000 30.910000 6.118000
-5.894000 30.910000 6.079000
-5.879000 30.910000 6.041000
-5.864000 30.900000 6.003000
-5.849000 30.900000 5.966000
-5.835000 30.900000 5.929000
-5.821000 30.900000 5.893000
-5.807000 30.900000 5.856000
-5.793000 30.900000 5.821000
-5.780000 30.900000 5.785000
-5.767000 30.890000 5.750000
-5.754000 30.890000 5.715000
-5.741000 30.890000 5.680000
-5.729000 30.890000 5.646000
-5.717000 30.880000 5.612000
-5.705000 30.880000 5.578000
-5.693000 30.880000 5.545000
-5.681000 30.870000 5.511000
-5.669000 30.870000 5.478000
-5.657000 30.870000 5.445000
-5.646000 30.860000 5.412000
-5.634000 30.860000 5.379000
-5.622000 30.850000 5.345000
-5.610000 30.850000 5.312000
-5.598000 30.840000 5.277000
-5.585000 30.840000 5.242000
-5.572000 30.830000 5.206000
-5.559000 30.830000 5.170000
-5.545000 30.820000 5.132000
-5.530000 30.810000 5.094000
-5.515000 30.800000 5.054000
-5.499000 30.800000 5.014000
-5.483000 30.790000 4.973000
-5.467000 30.780000 4.932000
-5.449000 30.770000 4.890000
-5.432000 30.760000 4.848000
-5.414000 30.750000 4.805000
-5.395000 30.740000 4.763000
-5.376000 30.730000 4.721000
-5.356000 30.720000 4.679000
-5.335000 30.710000 4.637000
-5.313000 30.700000 4.596000
-5.289000 30.680000 4.555000
-5.263000 30.670000 4.515000
-5.235000 30.660000 4.475000
-5.203000 30.660000 4.436000
-5.167000 30.650000 4.397000
-5.127000 30.650000 4.360000
-5.081000 30.640000 4.324000
-5.029000 30.650000 4.290000
-4.969000 30.660000 4.259000
-4.899000 30.670000 4.231000
-4.818000 30.700000 4.208000
-4.725000 30.730000 4.190000
-4.617000 30.770000 4.179000
-4.494000 30.820000 4.176000
-4.354000 30.880000 4.182000
-4.197000 30.940000 4.199000
-4.023000 31.020000 4.227000
-3.833000 31.100000 4.269000
-3.628000 31.190000 4.325000
-3.412000 31.280000 4.396000
-3.187000 31.370000 4.481000
-2.956000 31.460000 4.580000
-2.724000 31.540000 4.691000
-2.494000 31.630000 4.814000
-2.270000 31.700000 4.945000
-2.056000 31.770000 5.082000
-1.855000 31.830000 5.220000
-1.669000 31.880000 5.356000
-1.500000 31.920000 5.486000
-1.348000 31.950000 5.607000
-1.215000 31.980000 5.716000
-1.098000 32.000000 5.813000
-0.996300 32.020000 5.895000
-0.908100 32.040000 5.962000
-0.831100 32.050000 6.015000
-0.762900 32.070000 6.055000
-0.701300 32.080000 6.082000
-0.644600 32.090000 6.100000
-0.591100 32.110000 6.108000
-0.539700 32.130000 6.108000
-0.489700 32.140000 6.103000
-0.440800 32.160000 6.092000
-0.392700 32.180000 6.078000
-0.345700 32.200000 6.061000
-0.299900 32.210000 6.042000
-0.255600 32.230000 6.023000
-0.213300 32.250000 6.003000
-0.173100 32.260000 5.984000
-0.135200 32.270000 5.966000
-0.099570 32.290000 5.950000
-0.065880 32.300000 5.935000
-0.033670 32.310000 5.921000
-0.002177 32.320000 5.909000
0.029530 32.320000 5.897000
0.062540 32.330000 5.886000
0.098030 32.350000 5.875000
0.137100 32.360000 5.864000
0.180800 32.370000 5.852000
0.229900 32.390000 5.839000
0.284900 32.410000 5.825000
0.345900 32.430000 5.809000
0.412600 32.460000 5.793000
0.484600 32.480000 5.776000
0.561000 32.510000 5.760000
0.640800 32.540000 5.743000
0.722900 32.570000 5.728000
0.806200 32.590000 5.714000
0.889600 32.620000 5.701000
0.972300 32.650000 5.690000
1.053000 32.670000 5.680000
1.132000 32.690000 5.673000
1.209000 32.710000 5.666000
1.281000 32.730000 5.661000
1.351000 32.750000 5.656000
1.417000 32.770000 5.652000
1.478000 32.780000 5.649000
1.536000 32.790000 5.646000
1.590000 32.800000 5.643000
1.640000 32.810000 5.641000
1.687000 32.810000 5.638000
1.732000 32.820000 5.636000
1.774000 32.820000 5.635000
1.816000 32.820000 5.634000
1.858000 32.820000 5.634000
1.901000 32.820000 5.635000
1.946000 32.820000 5.638000
1.995000 32.820000 5.642000
2.049000 32.820000 5.648000
2.108000 32.810000 5.656000
2.173000 32.800000 5.667000
2.244000 32.800000 5.680000
2.321000 32.790000 5.695000
2.403000 32.770000 5.713000
2.490000 32.760000 5.732000
2.581000 32.740000 5.753000
2.674000 32.720000 5.774000
2.768000 32.700000 5.795000
2.862000 32.680000 5.816000
2.955000 32.660000 5.837000
3.046000 32.630000 5.856000
3.134000 32.610000 5.874000
3.218000 32.580000 5.891000
3.298000 32.560000 5.906000
3.374000 32.530000 5.919000
3.447000 32.510000 5.932000
3.515000 32.490000 5.942000
3.581000 32.470000 5.950000
3.643000 32.450000 5.956000
3.702000 32.430000 5.959000
3.758000 32.410000 5.958000
3.811000 32.400000 5.953000
3.861000 32.380000 5.943000
3.909000 32.370000 5.929000
3.953000 32.360000 5.910000
3.994000 32.350000 5.885000
4.032000 32.340000 5.856000
4.067000 32.340000 5.823000
4.099000 32.330000 5.787000
4.129000 32.320000 5.747000
4.158000 32.320000 5.704000
4.185000 32.310000 5.658000
4.211000 32.300000 5.610000
4.236000 32.300000 5.561000
4.261000 32.290000 5.510000
4.286000 32.280000 5.457000
4.311000 32.270000 5.403000
4.336000 32.260000 5.348000
4.361000 32.250000 5.292000
4.386000 32.240000 5.236000
4.411000 32.230000 5.181000
4.436000 32.220000 5.126000
4.460000 32.200000 5.073000
4.484000 32.190000 5.021000
4.507000 32.180000 4.972000
4.530000 32.160000 4.925000
4.553000 32.150000 4.881000
4.576000 32.140000 4.838000
4.600000 32.120000 4.799000
4.623000 32.110000 4.761000
4.648000 32.090000 4.725000
4.673000 32.080000 4.690000
4.698000 32.060000 4.657000
4.725000 32.050000 4.624000
4.753000 32.030000 4.592000
4.782000 32.010000 4.560000
4.811000 31.990000 4.528000
4.841000 31.970000 4.496000
4.872000 31.950000 4.463000
4.903000 31.930000 4.430000
4.935000 31.900000 4.396000
4.967000 31.880000 4.362000
4.999000 31.860000 4.327000
5.032000 31.830000 4.291000
5.065000 31.810000 4.256000
5.098000 31.780000 4.220000
5.132000 31.760000 4.183000
5.166000 31.730000 4.147000
5.201000 31.710000 4.111000
5.236000 31.680000 4.075000
5.273000 31.660000 4.039000
5.312000 31.630000 4.004000
5.353000 31.610000 3.969000
5.397000 31.590000 3.935000
5.443000 31.560000 3.902000
5.494000 31.540000 3.870000
5.549000 31.520000 3.839000
5.608000 31.490000 3.810000
5.672000 31.470000 3.783000
5.742000 31.440000 3.759000
5.818000 31.420000 3.737000
5.900000 31.400000 3.718000
5.988000 31.370000 3.703000
6.083000 31.350000 3.691000
6.183000 31.340000 3.685000
6.289000 31.320000 3.684000
6.400000 31.320000 3.689000
6.515000 31.310000 3.702000
6.634000 31.320000 3.724000
6.756000 31.330000 3.756000
6.880000 31.350000 3.799000
7.008000 31.370000 3.854000
7.138000 31.400000 3.922000
7.272000 31.430000 4.002000
7.410000 31.470000 4.096000
7.552000 31.510000 4.202000
7.699000 31.540000 4.319000
7.851000 31.580000 4.447000
8.008000 31.600000 4.582000
8.169000 31.620000 4.720000
8.333000 31.620000 4.860000
8.500000 31.620000 4.994000
8.668000 31.600000 5.120000
8.839000 31.570000 5.232000
9.010000 31.520000 5.326000
9.183000 31.470000 5.397000
9.356000 31.410000 5.443000
9.531000 31.340000 5.462000
9.707000 31.260000 5.455000
9.884000 31.180000 5.422000
10.060000 31.090000 5.367000
10.240000 30.990000 5.293000
10.420000 30.890000 5.206000
10.600000 30.790000 5.111000
10.780000 30.680000 5.013000
10.950000 30.570000 4.918000
11.130000 30.460000 4.830000
11.300000 30.350000 4.753000
11.460000 30.230000 4.690000
11.620000 30.120000 4.641000
11.770000 30.010000 4.609000
11.910000 29.910000 4.591000
12.040000 29.810000 4.588000
12.160000 29.720000 4.596000
12.270000 29.630000 4.615000
12.360000 29.550000 4.641000
12.440000 29.480000 4.673000
12.510000 29.410000 4.709000
12.570000 29.350000 4.746000
12.610000 29.300000 4.784000
12.650000 29.260000 4.821000
12.680000 29.220000 4.857000
12.700000 29.180000 4.891000
12.720000 29.150000 4.922000
12.730000 29.120000 4.950000
12.750000 29.100000 4.976000
12.760000 29.080000 4.999000
12.760000 29.060000 5.018000
12.770000 29.050000 5.035000
12.780000 29.040000 5.049000
12.780000 29.030000 5.060000
12.780000 29.020000 5.069000
12.790000 29.010000 5.076000
12.790000 29.010000 5.081000
12.790000 29.010000 5.085000
12.790000 29.000000 5.087000
12.790000 29.000000 5.089000
12.790000 29.000000 5.090000
12.790000 29.000000 5.091000
12.800000 29.000000 5.091000
12.800000 29.000000 5.092000
12.800000 29.000000 5.093000
12.800000 29.000000 5.094000
12.810000 29.000000 5.095000
12.810000 29.010000 5.097000
12.820000 29.010000 5.099000
12.830000 29.010000 5.103000
12.840000 29.010000 5.108000
12.860000 29.020000 5.115000
12.870000 29.020000 5.122000
12.890000 29.020000 5.132000
12.910000 29.030000 5.143000
12.930000 29.040000 5.156000
12.960000 29.040000 5.171000
12.980000 29.050000 5.186000
13.000000 29.060000 5.203000
13.020000 29.060000 5.221000
13.050000 29.070000 5.240000
13.070000 29.080000 5.259000
13.080000 29.090000 5.278000
13.100000 29.090000 5.298000
13.110000 29.100000 5.319000
13.130000 29.110000 5.339000
13.140000 29.110000 5.359000
13.150000 29.120000 5.380000
13.170000 29.130000 5.400000
13.180000 29.130000 5.421000
13.190000 29.140000 5.441000
13.200000 29.140000 5.461000
13.210000 29.150000 5.481000
13.220000 29.150000 5.502000
13.230000 29.160000 5.522000
13.240000 29.160000 5.542000
13.250000 29.170000 5.561000
13.260000 29.170000 5.581000
13.260000 29.180000 5.601000
13.270000 29.180000 5.621000
13.280000 29.190000 5.642000
13.290000 29.190000 5.662000
13.300000 29.200000 5.683000
13.310000 29.200000 5.704000
13.320000 29.200000 5.725000
13.330000 29.210000 5.747000
13.340000 29.210000 5.770000
13.350000 29.220000 5.793000
13.350000 29.220000 5.816000
13.360000 29.230000 5.841000
13.370000 29.230000 5.866000
13.380000 29.230000 5.893000
13.390000 29.240000 5.921000
13.400000 29.240000 5.949000
13.400000 29.240000 5.980000
13.410000 29.250000 6.011000
13.420000 29.250000 6.043000
13.430000 29.260000 6.077000
13.440000 29.260000 6.111000
13.450000 29.260000 6.146000
13.460000 29.270000 6.182000
13.470000 29.270000 6.218000
13.480000 29.280000 6.255000
13.490000 29.280000 6.292000
13.500000 29.280000 6.330000
13.510000 29.290000 6.368000
13.530000 29.290000 6.407000
13.540000 29.290000 6.447000
13.550000 29.300000 6.488000
13.570000 29.300000 6.529000
13.580000 29.300000 6.571000
13.600000 29.310000 6.614000
13.620000 29.310000 6.657000
13.630000 29.310000 6.700000
13.650000 29.310000 6.742000
13.670000 29.310000 6.784000
13.690000 29.310000 6.823000
13.710000 29.310000 6.860000
13.730000 29.310000 6.894000
13.750000 29.310000 6.923000
13.780000 29.310000 6.947000
13.800000 29.310000 6.966000
13.820000 29.310000 6.978000
13.850000 29.310000 6.985000
13.870000 29.300000 6.987000
13.900000 29.300000 6.983000
13.920000 29.300000 6.976000
13.950000 29.300000 6.964000
13.970000 29.290000 6.949000
13.990000 29.290000 6.933000
14.020000 29.290000 6.914000
14.040000 29.280000 6.895000
14.060000 29.280000 6.874000
14.090000 29.270000 6.853000
14.110000 29.270000 6.832000
14.130000 29.270000 6.810000
14.150000 29.260000 6.788000
14.170000 29.260000 6.766000
14.190000 29.250000 6.744000
14.210000 29.250000 6.721000
14.230000 29.240000 6.698000
14.250000 29.240000 6.675000
14.270000 29.230000 6.651000
14.290000 29.230000 6.626000
14.310000 29.220000 6.602000
14.320000 29.220000 6.576000
14.340000 29.210000 6.550000
14.350000 29.210000 6.524000
14.370000 29.200000 6.497000
14.380000 29.190000 6.470000
14.400000 29.190000 6.443000
14.410000 29.180000 6.417000
14.430000 29.180000 6.390000
14.440000 29.170000 6.363000
14.460000 29.160000 6.337000
14.470000 29.160000 6.311000
14.490000 29.150000 6.285000
14.500000 29.150000 6.259000
14.520000 29.140000 6.233000
14.530000 29.130000 6.206000
14.550000 29.130000 6.180000
14.560000 29.120000 6.154000
14.570000 29.110000 6.128000
14.590000 29.100000 6.101000
14.600000 29.100000 6.075000
14.620000 29.090000 6.050000
14.630000 29.080000 6.025000
14.640000 29.070000 6.001000
14.660000 29.060000 5.977000
14.670000 29.060000 5.955000
14.680000 29.050000 5.933000
14.700000 29.040000 5.913000
14.710000 29.030000 5.893000
14.730000 29.020000 5.874000
14.740000 29.010000 5.855000
14.760000 29.010000 5.835000
14.780000 29.000000 5.816000
14.790000 28.990000 5.795000
14.810000 28.980000 5.772000
14.840000 28.980000 5.747000
14.860000 28.970000 5.719000
14.890000 28.960000 5.686000
14.920000 28.960000 5.650000
14.950000 28.950000 5.608000
14.990000 28.950000 5.560000
15.030000 28.950000 5.507000
15.080000 28.940000 5.448000
15.140000 28.930000 5.383000
15.200000 28.920000 5.312000
15.270000 28.910000 5.236000
15.350000 28.890000 5.153000
15.440000 28.870000 5.065000
15.540000 28.830000 4.972000
15.650000 28.790000 4.873000
15.770000 28.730000 4.771000
15.910000 28.660000 4.665000
16.060000 28.580000 4.557000
16.220000 28.470000 4.449000
16.400000 28.350000 4.342000
16.580000 28.220000 4.239000
16.770000 28.060000 4.142000
16.970000 27.890000 4.054000
17.170000 27.710000 3.976000
17.370000 27.510000 3.911000
17.560000 27.310000 3.860000
17.750000 27.100000 3.824000
17.930000 26.890000 3.805000
18.100000 26.680000 3.802000
18.250000 26.470000 3.816000
18.400000 26.260000 3.847000
18.540000 26.060000 3.893000
18.660000 25.860000 3.955000
18.780000 25.670000 4.032000
18.880000 25.490000 4.123000
18.980000 25.310000 4.228000
19.070000 25.140000 4.345000
19.150000 24.980000 4.473000
19.230000 24.830000 4.610000
19.310000 24.680000 4.754000
19.380000 24.540000 4.902000
19.450000 24.410000 5.049000
19.530000 24.280000 5.191000
19.600000 24.150000 5.323000
19.690000 24.020000 5.439000
19.770000 23.900000 5.535000
19.870000 23.770000 5.608000
19.970000 23.640000 5.654000
20.090000 23.500000 5.675000
20.210000 23.350000 5.669000
20.340000 23.200000 5.642000
20.490000 23.020000 5.596000
20.640000 22.840000 5.539000
20.800000 22.640000 5.476000
20.960000 22.420000 5.413000
21.120000 22.180000 5.356000
21.290000 21.940000 5.312000
21.450000 21.680000 5.284000
21.600000 21.410000 5.276000
21.750000 21.140000 5.290000
21.880000 20.860000 5.329000
22.000000 20.590000 5.391000
22.110000 20.330000 5.478000
22.190000 20.080000 5.586000
22.260000 19.840000 5.716000
22.320000 19.610000 5.862000
22.360000 19.400000 6.023000
22.380000 19.210000 6.194000
22.400000 19.040000 6.372000
22.400000 18.880000 6.553000
22.390000 18.740000 6.731000
22.380000 18.620000 6.904000
22.360000 18.500000 7.068000
22.340000 18.400000 7.218000
22.330000 18.310000 7.352000
22.310000 18.220000 7.466000
22.310000 18.140000 7.559000
22.320000 18.060000 7.628000
22.330000 17.980000 7.673000
22.360000 17.900000 7.693000
22.410000 17.810000 7.688000
22.470000 17.720000 7.659000
22.550000 17.630000 7.610000
22.640000 17.520000 7.541000
22.750000 17.410000 7.456000
22.860000 17.290000 7.359000
22.980000 17.160000 7.253000
23.110000 17.020000 7.142000
23.240000 16.870000 7.030000
23.380000 16.710000 6.920000
23.510000 16.540000 6.815000
23.640000 16.350000 6.718000
23.770000 16.160000 6.631000
23.900000 15.960000 6.556000
24.010000 15.750000 6.493000
24.130000 15.540000 6.446000
24.230000 15.310000 6.414000
24.330000 15.080000 6.399000
24.410000 14.850000 6.401000
24.490000 14.620000 6.421000
24.560000 14.380000 6.459000
24.620000 14.150000 6.516000
24.660000 13.920000 6.591000
24.700000 13.690000 6.683000
24.730000 13.470000 6.791000
24.750000 13.260000 6.912000
24.760000 13.060000 7.043000
24.760000 12.860000 7.181000
24.770000 12.680000 7.321000
24.780000 12.500000 7.457000
24.790000 12.340000 7.586000
24.810000 12.180000 7.701000
24.840000 12.030000 7.799000
24.880000 11.880000 7.876000
24.950000 11.730000 7.930000
25.030000 11.580000 7.959000
25.130000 11.430000 7.965000
25.250000 11.280000 7.949000
25.380000 11.120000 7.915000
25.530000 10.950000 7.868000
25.690000 10.770000 7.811000
25.850000 10.590000 7.751000
26.020000 10.390000 7.691000
26.190000 10.180000 7.636000
26.350000 9.964000 7.588000
26.520000 9.733000 7.552000
26.680000 9.492000 7.526000
26.830000 9.239000 7.513000
26.970000 8.977000 7.512000
27.110000 8.706000 7.522000
27.250000 8.428000 7.542000
27.370000 8.143000 7.571000
27.480000 7.852000 7.608000
27.590000 7.557000 7.653000
27.690000 7.256000 7.703000
27.780000 6.953000 7.760000
27.850000 6.646000 7.822000
27.920000 6.336000 7.889000
27.980000 6.025000 7.961000
28.030000 5.713000 8.038000
28.070000 5.402000 8.120000
28.100000 5.093000 8.206000
28.130000 4.787000 8.296000
28.140000 4.486000 8.391000
28.150000 4.191000 8.490000
28.150000 3.902000 8.593000
28.150000 3.622000 8.699000
28.150000 3.350000 8.807000
28.150000 3.088000 8.914000
28.150000 2.834000 9.019000
28.150000 2.589000 9.119000
28.170000 2.352000 9.211000
28.190000 2.123000 9.291000
28.230000 1.902000 9.357000
28.280000 1.686000 9.406000
28.350000 1.475000 9.439000
28.430000 1.268000 9.454000
28.530000 1.063000 9.454000
28.640000 0.859200 9.440000
28.750000 0.654500 9.417000
28.870000 0.447800 9.389000
29.000000 0.237800 9.359000
29.120000 0.023580 9.330000
29.250000 -0.195600 9.308000
29.370000 -0.420300 9.294000
29.500000 -0.650500 9.290000
29.610000 -0.886300 9.299000
29.730000 -1.127000 9.323000
29.840000 -1.373000 9.361000
29.940000 -1.623000 9.415000
30.040000 -1.876000 9.484000
30.130000 -2.131000 9.571000
30.210000 -2.388000 9.673000
30.290000 -2.645000 9.790000
30.360000 -2.900000 9.923000
30.430000 -3.154000 10.070000
30.480000 -3.404000 10.230000
30.520000 -3.650000 10.400000
30.550000 -3.892000 10.590000
30.580000 -4.128000 10.780000
30.590000 -4.359000 10.980000
30.590000 -4.584000 11.180000
30.580000 -4.803000 11.390000
30.570000 -5.017000 11.600000
30.540000 -5.224000 11.810000
30.510000 -5.425000 12.020000
30.470000 -5.620000 12.230000
30.430000 -5.808000 12.430000
30.380000 -5.988000 12.620000
30.330000 -6.160000 12.810000
30.280000 -6.324000 12.980000
30.230000 -6.479000 13.150000
30.180000 -6.626000 13.310000
30.130000 -6.763000 13.450000
30.080000 -6.892000 13.580000
30.040000 -7.012000 13.710000
29.990000 -7.125000 13.820000
29.940000 -7.232000 13.920000
29.900000 -7.334000 14.020000
29.860000 -7.431000 14.100000
29.820000 -7.525000 14.180000
29.780000 -7.616000 14.250000
29.740000 -7.704000 14.320000
29.700000 -7.792000 14.380000
29.660000 -7.877000 14.430000
29.630000 -7.962000 14.490000
29.600000 -8.047000 14.530000
29.570000 -8.132000 14.580000
29.560000 -8.219000 14.620000
29.550000 -8.307000 14.650000
29.560000 -8.400000 14.690000
29.570000 -8.497000 14.710000
29.600000 -8.602000 14.740000
29.650000 -8.715000 14.760000
29.710000 -8.840000 14.780000
29.790000 -8.978000 14.790000
29.880000 -9.129000 14.810000
29.980000 -9.297000 14.830000
30.090000 -9.480000 14.840000
30.200000 -9.680000 14.870000
30.320000 -9.895000 14.900000
30.440000 -10.120000 14.940000
30.550000 -10.370000 14.980000
30.660000 -10.620000 15.030000
30.760000 -10.880000 15.100000
30.850000 -11.150000 15.170000
30.940000 -11.420000 15.250000
31.010000 -11.690000 15.340000
31.070000 -11.960000 15.440000
31.120000 -12.230000 15.550000
31.160000 -12.490000 15.660000
31.190000 -12.750000 15.770000
31.210000 -13.000000 15.890000
31.230000 -13.250000 16.010000
31.240000 -13.490000 16.140000
31.230000 -13.720000 16.270000
31.220000 -13.950000 16.400000
31.200000 -14.170000 16.540000
31.160000 -14.380000 16.680000
31.120000 -14.580000 16.820000
31.050000 -14.780000 16.960000
30.970000 -14.960000 17.110000
30.870000 -15.150000 17.270000
30.760000 -15.320000 17.430000
30.620000 -15.490000 17.590000
30.470000 -15.640000 17.750000
30.300000 -15.790000 17.910000
30.120000 -15.920000 18.070000
29.930000 -16.050000 18.220000
29.740000 -16.160000 18.370000
29.550000 -16.250000 18.510000
29.360000 -16.340000 18.640000
29.180000 -16.410000 18.760000
29.010000 -16.470000 18.870000
28.840000 -16.520000 18.980000
28.680000 -16.560000 19.080000
28.530000 -16.600000 19.170000
28.380000 -16.630000 19.260000
28.230000 -16.650000 19.350000
28.080000 -16.680000 19.430000
27.920000 -16.700000 19.510000
27.750000 -16.710000 19.580000
27.580000 -16.730000 19.660000
27.390000 -16.750000 19.730000
27.200000 -16.770000 19.790000
27.000000 -16.780000 19.850000
26.780000 -16.800000 19.910000
26.560000 -16.810000 19.960000
26.330000 -16.830000 20.000000
26.090000 -16.840000 20.040000
25.850000 -16.860000 20.080000
25.600000 -16.860000 20.100000
25.360000 -16.870000 20.120000
25.110000 -16.870000 20.140000
24.860000 -16.870000 20.140000
24.620000 -16.860000 20.140000
1405
